# .PCD v.7 - Point Cloud Data file format
VERSION .7
FIELDS x y z
SIZE 4 4 4
TYPE F F F
COUNT 1 1 1
WIDTH 1973
HEIGHT 1
VIEWPOINT 0 0 0 1 0 0 0
POINTS 1973
DATA ascii
27.0725 238.723 -12.0466
26.4269 233.031 -11.7914
27.0518 238.541 -12.103
27.0106 238.178 -12.1173
26.7862 236.199 -12.0491
26.5655 234.253 -11.982
26.5655 234.253 -12.0142
26.5258 233.902 -12.0284
26.9081 237.274 -12.2344
26.9081 237.274 -12.2671
26.9081 237.274 -12.2997
26.6654 235.133 -12.2211
26.6453 234.957 -12.2442
26.5655 234.253 -12.2397
26.5258 233.902 -12.2536
26.5258 233.902 -12.2857
26.6453 234.957 -12.3734
26.6654 235.133 -12.415
26.5059 233.727 -12.3729
26.5059 233.727 -12.4051
26.3288 232.166 -12.3541
26.9695 237.815 -12.6875
26.2121 231.136 -12.3629
26.7458 235.843 -12.6471
26.7458 235.843 -12.6795
26.6054 234.604 -12.6452
26.6054 234.604 -12.6774
26.9081 237.274 -12.8543
27.0106 238.178 -12.936
26.8267 236.556 -12.8805
26.7862 236.199 -12.8935
26.847 236.735 -12.9553
26.4664 233.379 -12.8037
26.949 237.635 -13.0699
26.9081 237.274 -13.0827
26.6453 234.957 -12.9872
26.4664 233.379 -12.9321
26.4072 232.857 -12.9352
26.5655 234.253 -13.0449
26.4664 233.379 -13.0284
26.766 236.021 -13.2083
26.7458 235.843 -13.2308
26.9695 237.815 -13.3741
26.9901 237.996 -13.417
26.4072 232.857 -13.1593
26.6654 235.133 -13.3203
26.7055 235.487 -13.3727
26.4861 233.553 -13.295
26.7862 236.199 -13.4781
26.6253 234.78 -13.4294
26.6253 234.78 -13.4617
26.6054 234.604 -13.4839
26.5258 233.902 -13.4757
26.3876 232.684 -13.4375
26.3484 232.338 -13.4495
27.0725 238.723 -13.8519
26.9286 237.454 -13.8109
26.4072 232.857 -13.5756
26.4269 233.031 -13.6177
26.8877 237.094 -13.8878
26.9286 237.454 -13.9415
26.9695 237.815 -13.9954
26.9081 237.274 -13.9962
26.4664 233.379 -13.7985
26.6654 235.133 -13.9346
26.6253 234.78 -13.9459
26.8267 236.556 -14.084
27.0106 238.178 -14.2133
26.8267 236.556 -14.149
26.766 236.021 -14.1494
26.7862 236.199 -14.1926
26.368 232.511 -14.003
26.8267 236.556 -14.2791
26.8267 236.556 -14.3116
26.6453 234.957 -14.2472
26.8267 236.556 -14.3767
26.6854 235.31 -14.3333
26.7256 235.665 -14.3873
26.6854 235.31 -14.398
26.6253 234.78 -14.3979
26.5655 234.253 -14.3978
26.847 236.735 -14.5829
26.8267 236.556 -14.6044
26.5258 233.902 -14.4727
26.4861 233.553 -14.4832
26.5258 233.902 -14.537
26.8064 236.377 -14.7234
26.8064 236.377 -14.7559
26.3093 231.994 -14.5141
26.2703 231.65 -14.5244
26.3484 232.338 -14.5996
26.6253 234.78 -14.7853
26.6654 235.133 -14.8398
26.6654 235.133 -14.8722
26.368 232.511 -14.7383
26.3093 231.994 -14.7374
26.8267 236.556 -15.0598
26.847 236.735 -15.1037
26.8064 236.377 -15.1134
26.6854 235.31 -15.0775
26.766 236.021 -15.1555
26.8674 236.915 -15.2455
26.8267 236.556 -15.2549
26.3093 231.994 -14.9926
26.3093 231.994 -15.0245
26.368 232.511 -15.09
26.9901 237.996 -15.4787
26.9081 237.274 -15.4643
26.7458 235.843 -15.4035
26.9081 237.274 -15.5296
26.8877 237.094 -15.5504
26.4466 233.205 -15.3274
26.3288 232.166 -15.291
26.7862 236.199 -15.5891
26.8064 236.377 -15.6334
26.9081 237.274 -15.7253
26.7256 235.665 -15.6511
26.8267 236.556 -15.7428
26.2898 231.822 -15.4596
26.8877 237.094 -15.8438
26.8877 237.094 -15.8764
26.368 232.511 -15.6015
26.4664 233.379 -15.6918
26.4664 233.379 -15.7239
26.3876 232.684 -15.7091
26.3484 232.338 -15.7177
26.9286 237.454 -16.0964
26.8674 236.915 -16.0924
26.9695 237.815 -16.1863
26.847 236.735 -16.1453
26.847 236.735 -16.1779
26.8877 237.094 -16.235
26.9286 237.454 -16.2923
26.8674 236.915 -16.2879
26.9901 237.996 -16.395
26.4466 233.205 -16.0969
26.4466 233.205 -16.129
26.4269 233.031 -16.149
26.4269 233.031 -16.1811
26.3484 232.338 -16.1649
26.8064 236.377 -16.4785
26.8064 236.377 -16.511
26.8267 236.556 -16.556
26.4072 232.857 -16.3291
26.6054 234.604 -16.4839
26.3484 232.338 -16.3566
26.766 236.021 -16.6483
26.7458 235.843 -16.6682
26.9901 237.996 -16.8531
26.4269 233.031 -16.5335
26.4466 233.205 -16.5779
26.3876 232.684 -16.5729
26.3484 232.338 -16.5802
26.6654 235.133 -16.812
26.6453 234.957 -16.8317
26.4861 233.553 -16.7633
26.5258 233.902 -16.8205
26.9286 237.454 -17.1086
27.0725 238.723 -17.2328
27.0312 238.359 -17.2393
27.1139 239.088 -17.3249
27.0518 238.541 -17.3181
26.4072 232.857 -16.9375
26.4072 232.857 -16.9695
26.766 236.021 -17.2325
26.368 232.511 -17.0082
26.6854 235.31 -17.2453
26.6854 235.31 -17.2777
26.8064 236.377 -17.3885
26.8267 236.556 -17.4342
26.766 236.021 -17.4272
26.766 236.021 -17.4596
26.9286 237.454 -17.5983
26.6654 235.133 -17.4586
26.4466 233.205 -17.3475
26.4466 233.205 -17.3796
27.0106 238.178 -17.7829
27.0312 238.359 -17.8293
26.9695 237.815 -17.8213
26.5059 233.727 -17.5471
26.5258 233.902 -17.5924
26.5258 233.902 -17.6245
26.2509 231.478 -17.4737
26.2509 231.478 -17.5056
26.3876 232.684 -17.6287
26.5456 234.077 -17.7665
26.6453 234.957 -17.8655
26.4861 233.553 -17.7909
26.4072 232.857 -17.7699
26.4466 233.205 -17.8285
26.6654 235.133 -18.0083
26.4072 232.857 -17.866
26.4664 233.379 -17.9381
26.6054 234.604 -18.0645
26.8877 237.094 -18.2889
26.3876 232.684 -17.9807
26.4466 233.205 -18.0529
27.0725 238.723 -18.513
26.2121 231.136 -17.9564
26.7256 235.665 -18.3406
26.2898 231.822 -18.0734
26.5854 234.428 -18.3088
26.5854 234.428 -18.3411
26.5854 234.428 -18.3733
26.6054 234.604 -18.4194
26.847 236.735 -18.6192
26.9286 237.454 -18.7084
26.2898 231.822 -18.2965
26.2898 231.822 -18.3284
26.2898 231.822 -18.3603
27.0312 238.359 -18.9108
26.9695 237.815 -18.9004
26.3484 232.338 -18.497
26.3876 232.684 -18.5565
26.5258 233.902 -18.6859
26.5059 233.727 -18.704
26.949 237.635 -19.0494
26.949 237.635 -19.0821
26.4861 233.553 -18.7864
26.4269 233.031 -18.7765
26.2703 231.65 -18.697
26.3876 232.684 -18.8125
26.3876 232.684 -18.8445
26.4072 232.857 -18.8905
26.368 232.511 -18.8944
26.7256 235.665 -19.1831
26.8267 236.556 -19.2882
26.8267 236.556 -19.3207
26.2898 231.822 -18.9659
26.7862 236.199 -19.3565
26.7862 236.199 -19.389
26.8674 236.915 -19.4803
26.6054 234.604 -19.3226
26.6654 235.133 -19.3985
26.3288 232.166 -19.1856
26.7256 235.665 -19.5072
26.2898 231.822 -19.2209
26.3876 232.684 -19.3244
26.6854 235.31 -19.5749
26.7055 235.487 -19.622
26.6453 234.957 -19.6101
26.6054 234.604 -19.6129
26.4664 233.379 -19.5425
26.4861 233.553 -19.5892
26.5854 234.428 -19.6949
26.5854 234.428 -19.7271
26.4861 233.553 -19.6856
26.6854 235.31 -19.8661
26.3288 232.166 -19.6325
26.3484 232.338 -19.6791
26.368 232.511 -19.7257
26.368 232.511 -19.7576
26.3876 232.684 -19.8043
26.5059 233.727 -19.9253
26.5059 233.727 -19.9574
26.4861 233.553 -19.9746
26.8064 236.377 -20.2487
26.3484 232.338 -19.9346
26.368 232.511 -19.9814
26.5059 233.727 -20.1181
26.3288 232.166 -20.0156
26.4269 233.031 -20.1222
26.6054 234.604 -20.2903
26.6054 234.604 -20.3226
26.5854 234.428 -20.3396
26.368 232.511 -20.2052
26.3288 232.166 -20.2071
26.4072 232.857 -20.2993
26.4072 232.857 -20.3313
26.4861 233.553 -20.4242
26.8267 236.556 -20.7194
26.8064 236.377 -20.7362
26.2703 231.65 -20.3533
26.2703 231.65 -20.3852
26.9286 237.454 -20.9286
26.4072 232.857 -20.5555
26.4466 233.205 -20.6182
26.6054 234.604 -20.7742
26.6253 234.78 -20.8221
26.6253 234.78 -20.8544
26.5655 234.253 -20.8397
26.6854 235.31 -20.9661
26.766 236.021 -21.0619
26.2898 231.822 -20.7191
26.2509 231.478 -20.7202
26.3093 231.994 -20.7982
26.8064 236.377 -21.2237
26.4861 233.553 -21.0022
26.5059 233.727 -21.0501
26.6253 234.78 -21.1772
26.5854 234.428 -21.1777
26.6054 234.604 -21.2258
26.368 232.511 -21.0684
26.3288 232.166 -21.069
26.6854 235.31 -21.3868
26.6453 234.957 -21.3869
26.6054 234.604 -21.3871
26.7055 235.487 -21.5
26.7055 235.487 -21.5324
26.6253 234.78 -21.5
26.4861 233.553 -21.4197
26.4269 233.031 -21.4039
26.4861 233.553 -21.4839
26.4269 233.031 -21.468
26.9081 237.274 -21.8915
26.5456 234.077 -21.6287
26.5655 234.253 -21.6772
26.5456 234.077 -21.6931
26.7256 235.665 -21.8726
26.4072 232.857 -21.6441
26.4269 233.031 -21.6923
26.5059 233.727 -21.7892
26.5059 233.727 -21.8214
26.949 237.635 -22.2188
26.2121 231.136 -21.643
26.8064 236.377 -22.1663
26.3876 232.684 -21.8519
26.5655 234.253 -22.0315
26.4072 232.857 -21.9322
26.4664 233.379 -22.0134
26.5258 233.902 -22.095
26.4861 233.553 -22.0941
26.8674 236.915 -22.4447
26.7862 236.199 -22.4094
26.3093 231.994 -22.0423
26.5854 234.428 -22.3058
26.5655 234.253 -22.3213
26.5456 234.077 -22.3368
26.5258 233.902 -22.3523
26.5456 234.077 -22.4012
26.5456 234.077 -22.4334
26.5456 234.077 -22.4656
26.4664 233.379 -22.4306
26.5456 234.077 -22.5299
26.5258 233.902 -22.5452
26.7055 235.487 -22.7304
26.766 236.021 -22.8143
26.766 236.021 -22.8468
26.5456 234.077 -22.6909
26.5655 234.253 -22.7401
26.5456 234.077 -22.7552
26.4269 233.031 -22.6855
26.4072 232.857 -22.7007
26.5854 234.428 -22.8861
26.368 232.511 -22.7309
26.3288 232.166 -22.729
26.3093 231.994 -22.7441
26.4466 233.205 -22.8949
26.4269 233.031 -22.9098
26.5655 234.253 -23.0622
26.5456 234.077 -23.0771
26.7458 235.843 -23.2836
26.7458 235.843 -23.316
26.766 236.021 -23.366
26.766 236.021 -23.3985
26.766 236.021 -23.4309
26.5854 234.428 -23.3051
26.5655 234.253 -23.3199
26.5456 234.077 -23.3346
26.6654 235.133 -23.4722
26.6654 235.133 -23.5045
26.6453 234.957 -23.5192
26.8064 236.377 -23.6939
26.2509 231.478 -23.2346
26.7256 235.665 -23.6873
26.4269 233.031 -23.4545
26.4664 233.379 -23.5216
26.4072 232.857 -23.5011
26.2703 231.65 -23.4111
26.3093 231.994 -23.4777
26.5456 234.077 -23.7208
26.5059 233.727 -23.7175
26.8877 237.094 -24.0917
26.4269 233.031 -23.7109
26.4269 233.031 -23.7429
26.4269 233.031 -23.775
26.4269 233.031 -23.807
26.4664 233.379 -23.8746
26.4664 233.379 -23.9067
26.4664 233.379 -23.9388
26.2509 231.478 -23.7757
26.3484 232.338 -23.896
26.3288 232.166 -23.9102
26.5655 234.253 -24.1573
26.5854 234.428 -24.2076
26.5456 234.077 -24.2036
26.5059 233.727 -24.1996
26.5059 233.727 -24.2317
26.1541 230.625 -23.9417
26.5258 233.902 -24.3141
26.3876 232.684 -24.2195
26.6453 234.957 -24.4884
26.5258 233.902 -24.4106
26.6054 234.604 -24.5161
26.6054 234.604 -24.5484
26.7055 235.487 -24.6732
26.6854 235.31 -24.687
26.5854 234.428 -24.6267
26.6054 234.604 -24.6774
26.3093 231.994 -24.4347
26.368 232.511 -24.5212
26.3484 232.338 -24.5349
26.4466 233.205 -24.6585
26.5456 234.077 -24.7829
26.5258 233.902 -24.7966
26.5456 234.077 -24.8473
26.6253 234.78 -24.9542
26.6054 234.604 -24.9677
26.4664 233.379 -24.8694
26.4664 233.379 -24.9015
26.4269 233.031 -24.8964
26.4269 233.031 -24.9285
26.4664 233.379 -24.9978
26.5258 233.902 -25.086
26.4466 233.205 -25.0433
26.5655 234.253 -25.188
26.4664 233.379 -25.1261
26.6253 234.78 -25.3093
26.5258 233.902 -25.2468
26.5059 233.727 -25.2601
26.4466 233.205 -25.2356
26.6854 235.31 -25.4959
26.6854 235.31 -25.5282
26.6854 235.31 -25.5606
26.4664 233.379 -25.3828
26.6253 234.78 -25.5676
26.6654 235.133 -25.6383
26.6854 235.31 -25.69
26.7055 235.487 -25.7417
26.3288 232.166 -25.4105
26.3484 232.338 -25.4614
26.6253 234.78 -25.7613
26.6253 234.78 -25.7935
26.6253 234.78 -25.8258
26.4861 233.553 -25.7229
26.5258 233.902 -25.7936
26.4861 233.553 -25.7872
26.1348 230.455 -25.4768
26.368 232.511 -25.7361
26.368 232.511 -25.768
26.5854 234.428 -26.0127
26.5456 234.077 -26.006
26.5456 234.077 -26.0382
26.3288 232.166 -25.8575
26.766 236.021 -26.3192
26.2703 231.65 -25.8637
26.1541 230.625 -25.781
26.1541 230.625 -25.8127
26.847 236.735 -26.5291
26.7256 235.665 -26.4416
26.6253 234.78 -26.3746
26.4466 233.205 -26.2297
26.4664 233.379 -26.2813
26.3484 232.338 -26.1961
26.3288 232.166 -26.2086
26.4072 232.857 -26.3187
26.2509 231.478 -26.1947
26.6453 234.957 -26.6206
26.6054 234.604 -26.6129
26.6054 234.604 -26.6452
26.7458 235.843 -26.8182
26.6854 235.31 -26.7901
26.6854 235.31 -26.8224
26.7055 235.487 -26.875
26.7256 235.665 -26.9277
26.7862 236.199 -27.0211
26.847 236.735 -27.1151
26.5258 233.902 -26.8227
26.5258 233.902 -26.8549
26.4269 233.031 -26.7869
26.368 232.511 -26.7591
26.3876 232.684 -26.811
26.6854 235.31 -27.146
26.6854 235.31 -27.1783
26.6654 235.133 -27.1902
26.4664 233.379 -27.0194
26.6054 234.604 -27.1935
26.4664 233.379 -27.0836
26.4466 233.205 -27.0955
26.8267 236.556 -27.5174
26.8064 236.377 -27.5291
26.3484 232.338 -27.0906
26.5456 234.077 -27.3256
26.6054 234.604 -27.4194
26.6054 234.604 -27.4516
26.3093 231.994 -27.178
26.2121 231.136 -27.1094
26.2509 231.478 -27.1813
26.6453 234.957 -27.6221
26.6253 234.78 -27.6336
26.8267 236.556 -27.8752
26.4466 233.205 -27.5123
26.4664 233.379 -27.5649
26.4466 233.205 -27.5764
26.4466 233.205 -27.6085
26.4072 232.857 -27.5994
26.4269 233.031 -27.652
26.6054 234.604 -27.871
26.1927 230.965 -27.4705
26.2121 231.136 -27.5225
26.2509 231.478 -27.5951
26.2315 231.307 -27.6065
26.8674 236.915 -28.3083
26.8267 236.556 -28.298
26.8877 237.094 -28.395
26.3288 232.166 -27.8367
26.1734 230.795 -27.7041
26.6253 234.78 -28.2147
26.5854 234.428 -28.2046
26.6854 235.31 -28.3431
26.3288 232.166 -27.9963
26.3484 232.338 -28.049
26.3484 232.338 -28.081
26.3288 232.166 -28.0921
26.3484 232.338 -28.1449
26.5059 233.727 -28.3453
26.7458 235.843 -28.6342
26.8267 236.556 -28.7534
26.1734 230.795 -28.0849
26.1734 230.795 -28.1166
26.3093 231.994 -28.2945
26.2898 231.822 -28.3054
26.7862 236.199 -28.8724
26.3093 231.994 -28.3902
26.2898 231.822 -28.401
26.6253 234.78 -28.7958
26.7055 235.487 -28.9149
26.6453 234.957 -28.882
26.5059 233.727 -28.7631
26.3876 232.684 -28.6667
26.5854 234.428 -28.9138
26.6854 235.31 -29.0549
26.3288 232.166 -28.6986
26.4269 233.031 -28.8376
26.4269 233.031 -28.8696
26.5258 233.902 -29.0097
26.5258 233.902 -29.0419
26.5059 233.727 -29.0523
26.847 236.735 -29.4587
26.3288 232.166 -28.9221
26.5854 234.428 -29.2361
26.3876 232.684 -29.0506
26.4072 232.857 -29.1042
26.4664 233.379 -29.2015
26.4072 232.857 -29.1683
26.4072 232.857 -29.2003
26.368 232.511 -29.1888
26.5059 233.727 -29.3737
26.5059 233.727 -29.4058
26.5059 233.727 -29.438
26.4466 233.205 -29.4042
26.4466 233.205 -29.4362
26.3876 232.684 -29.4025
26.368 232.511 -29.4126
26.8877 237.094 -30.025
26.5655 234.253 -29.6974
26.5059 233.727 -29.6629
26.4664 233.379 -29.6507
26.4466 233.205 -29.6607
26.4072 232.857 -29.6485
26.4072 232.857 -29.6806
26.4269 233.031 -29.7347
26.4269 233.031 -29.7668
26.1927 230.965 -29.5347
26.1927 230.965 -29.5665
26.2703 231.65 -29.6859
26.3093 231.994 -29.7619
26.3484 232.338 -29.838
26.2898 231.822 -29.8036
26.3093 231.994 -29.8576
26.3288 232.166 -29.9117
26.4664 233.379 -30.1
26.2703 231.65 -29.9089
26.368 232.511 -30.052
26.3484 232.338 -30.0617
26.3484 232.338 -30.0936
26.7256 235.665 -30.5569
26.5456 234.077 -30.3832
26.2315 231.307 -30.0555
26.4466 233.205 -30.3341
26.4466 233.205 -30.3661
26.6453 234.957 -30.6266
26.6654 235.133 -30.682
26.3288 232.166 -30.3267
26.766 236.021 -30.8626
26.4269 233.031 -30.5037
26.5059 233.727 -30.6271
26.3876 232.684 -30.5223
26.368 232.511 -30.5316
26.4664 233.379 -30.6776
26.4861 233.553 -30.7326
26.5456 234.077 -30.8338
26.5258 233.902 -30.8429
26.4269 233.031 -30.7601
26.6453 234.957 -31.0466
26.4072 232.857 -30.8012
26.1541 230.625 -30.5376
26.5456 234.077 -31.0269
26.5456 234.077 -31.0591
26.5059 233.727 -31.0448
26.5258 233.902 -31.1002
26.5258 233.902 -31.1324
26.5059 233.727 -31.1413
26.5258 233.902 -31.1967
26.5059 233.727 -31.2055
26.9081 237.274 31.7117
27.1346 239.271 31.9457
26.8674 236.915 31.5985
26.8877 237.094 31.5898
26.9081 237.274 31.5812
26.8877 237.094 31.5246
27.1139 239.088 31.7569
27.3649 241.302 32.0177
26.8674 236.915 31.403
27.1554 239.454 31.7067
26.8877 237.094 31.3616
26.7458 235.843 31.1636
26.847 236.735 31.2491
27.4284 241.862 31.8925
27.1139 239.088 31.4939
27.1139 239.088 31.461
26.7862 236.199 31.0483
26.847 236.735 31.0863
27.1346 239.271 31.3864
26.7862 236.199 30.9509
27.0518 238.541 31.225
27.3438 241.116 31.5289
27.3228 240.93 31.4715
27.3649 241.302 31.4869
27.2598 240.375 31.3328
26.9901 237.996 30.9901
26.9901 237.996 30.9574
27.4709 242.236 31.4756
26.8674 236.915 30.7515
27.2179 240.006 31.1197
27.1139 239.088 30.9679
27.1139 239.088 30.935
26.9081 237.274 30.6677
26.9081 237.274 30.6351
26.9081 237.274 30.6024
27.386 241.488 31.1127
27.0725 238.723 30.7237
27.0725 238.723 30.6908
27.2807 240.559 30.8938
26.949 237.635 30.4856
27.0725 238.723 30.5924
27.197 239.822 30.7002
27.4072 241.675 30.9042
27.3438 241.116 30.7995
27.3649 241.302 30.7901
27.2179 240.006 30.5917
27.1554 239.454 30.4885
27.0518 238.541 30.3394
27.0106 238.178 30.2605
27.0312 238.359 30.2508
26.9901 237.996 30.172
26.8674 236.915 30.0023
26.8674 236.915 29.9697
27.3649 241.302 30.4915
26.9695 237.815 30.0183
26.9286 237.454 29.94
26.949 237.635 29.9301
26.949 237.635 29.8974
26.9901 237.996 29.9102
27.0312 238.359 29.923
27.0312 238.359 29.8902
26.9081 237.274 29.7215
27.2179 240.006 30.0307
27.2179 240.006 29.9977
26.847 236.735 29.5564
27.386 241.488 30.1166
26.847 236.735 29.4913
26.9081 237.274 29.5258
27.2807 240.559 29.9015
27.2598 240.375 29.8455
27.2598 240.375 29.8125
27.3228 240.93 29.8482
27.0518 238.541 29.5195
27.1762 239.638 29.6222
27.0518 238.541 29.4539
26.766 236.021 29.1102
26.7458 235.843 29.0558
26.8674 236.915 29.1553
26.8064 236.377 29.0567
27.3017 240.745 29.5604
27.0931 238.905 29.3018
26.847 236.735 29.003
26.8267 236.556 28.9486
27.0931 238.905 29.2032
27.3017 240.745 29.3949
26.949 237.635 28.9825
27.1346 239.271 29.1492
27.1346 239.271 29.1163
27.1139 239.088 29.0612
27.3228 240.93 29.2519
26.8267 236.556 28.6884
26.8267 236.556 28.6558
27.3649 241.302 29.1975
27.2598 240.375 29.0523
26.8674 236.915 28.6015
27.4709 242.236 29.2107
27.4922 242.424 29.2
26.8064 236.377 28.4392
26.949 237.635 28.5578
26.949 237.635 28.5251
27.3649 241.302 28.9321
27.0931 238.905 28.6119
26.9286 237.454 28.4055
26.8877 237.094 28.3298
27.0725 238.723 28.4916
26.8064 236.377 28.1791
26.8267 236.556 28.1679
26.766 236.021 28.0717
27.1139 239.088 28.4037
27.1139 239.088 28.3708
27.0725 238.723 28.2947
27.0725 238.723 28.2618
27.0931 238.905 28.2506
27.2388 240.19 28.3694
26.8267 236.556 27.9077
26.7055 235.487 27.7492
27.1762 239.638 28.2054
27.4496 242.049 28.4559
26.9286 237.454 27.8831
26.9286 237.454 27.8504
27.0931 238.905 27.9878
27.0312 238.359 27.891
27.0312 238.359 27.8582
26.9081 237.274 27.6988
27.197 239.822 27.9632
27.197 239.822 27.9302
27.1139 239.088 27.8119
27.1346 239.271 27.8003
26.8267 236.556 27.4523
26.9695 237.815 27.5658
27.2388 240.19 27.808
27.2388 240.19 27.775
27.3649 241.302 27.8704
26.8267 236.556 27.2897
26.9286 237.454 27.3607
27.3017 240.745 27.7067
27.1139 239.088 27.4832
27.0312 238.359 27.3666
27.2388 240.19 27.5438
27.3438 241.116 27.6168
26.9901 237.996 27.2268
26.8064 236.377 27.0091
27.2598 240.375 27.4327
27.3017 240.745 27.4419
26.8877 237.094 26.9932
26.7862 236.199 26.8588
26.7256 235.665 26.7656
27.3649 241.302 27.3727
26.7256 235.665 26.7008
26.7458 235.843 26.6885
27.0518 238.541 26.9611
26.9286 237.454 26.8056
26.9081 237.274 26.7527
26.8877 237.094 26.6998
27.1139 239.088 26.8914
27.1139 239.088 26.8586
26.847 236.735 26.5617
27.3649 241.302 27.0409
27.1139 239.088 26.7599
27.2598 240.375 26.8709
27.0725 238.723 26.6534
27.2179 240.006 26.7636
27.0931 238.905 26.6081
27.0931 238.905 26.5752
27.3438 241.116 26.788
26.6453 234.957 26.0714
26.7256 235.665 26.1176
27.2807 240.559 26.6269
27.0725 238.723 26.3908
27.0518 238.541 26.3379
27.0518 238.541 26.3051
27.0518 238.541 26.2723
27.0518 238.541 26.2395
26.8674 236.915 26.028
26.8674 236.915 25.9955
27.4284 241.862 26.505
27.2388 240.19 26.2888
27.2388 240.19 26.2558
27.2179 240.006 26.2026
27.3228 240.93 26.2704
27.1346 239.271 26.0566
26.847 236.735 25.7479
27.0312 238.359 25.8918
26.847 236.735 25.6828
26.847 236.735 25.6503
26.847 236.735 25.6177
26.7055 235.487 25.4503
26.7862 236.199 25.4947
26.7055 235.487 25.3855
27.386 241.488 25.9992
27.2388 240.19 25.8264
27.3017 240.745 25.853
26.847 236.735 25.3899
27.1346 239.271 25.6289
27.0931 238.905 25.5569
27.3649 241.302 25.7801
27.1346 239.271 25.5302
26.847 236.735 25.2271
27.0725 238.723 25.4061
27.1139 239.088 25.4121
26.7862 236.199 25.0725
26.766 236.021 25.0211
26.9286 237.454 25.1405
26.949 237.635 25.1269
26.9901 237.996 25.1324
27.0931 238.905 25.1956
26.7458 235.843 24.8401
27.3228 240.93 25.3428
26.766 236.021 24.794
26.7458 235.843 24.7428
27.2179 240.006 25.1466
27.3649 241.302 25.2492
26.766 236.021 24.6642
26.7256 235.665 24.5946
26.9081 237.274 24.7299
26.949 237.635 24.7348
27.0518 238.541 24.7963
27.4496 242.049 25.1277
26.7055 235.487 24.4142
26.7862 236.199 24.4554
26.7458 235.843 24.3861
26.7458 235.843 24.3537
26.847 236.735 24.4133
26.7256 235.665 24.2705
26.8674 236.915 24.3667
26.847 236.735 24.3157
26.8267 236.556 24.2647
26.847 236.735 24.2506
26.847 236.735 24.218
26.766 236.021 24.1125
26.8267 236.556 24.1346
26.7256 235.665 24.0113
27.386 241.488 24.5714
26.8267 236.556 24.0371
26.8877 237.094 24.0591
27.3438 241.116 24.4341
26.847 236.735 23.9576
27.4072 241.675 24.4243
27.0518 238.541 24.0748
27.0312 238.359 24.0236
26.9081 237.274 23.8816
26.8674 236.915 23.8129
27.0312 238.359 23.9253
27.0312 238.359 23.8925
27.0725 238.723 23.8962
27.0518 238.541 23.8452
26.8877 237.094 23.6679
26.949 237.635 23.6892
26.7256 235.665 23.4604
26.7256 235.665 23.428
27.0931 238.905 23.7173
27.3649 241.302 23.9221
26.766 236.021 23.366
26.8064 236.377 23.3689
27.0106 238.178 23.5141
26.9695 237.815 23.4456
26.9286 237.454 23.3774
26.766 236.021 23.2038
26.7458 235.843 23.1538
27.3017 240.745 23.602
27.3228 240.93 23.5871
27.3438 241.116 23.5721
27.2807 240.559 23.4846
26.847 236.735 23.0787
26.9695 237.815 23.1513
27.2807 240.559 23.3854
26.9901 237.996 23.1035
26.766 236.021 22.8792
26.8064 236.377 22.8813
27.2807 240.559 23.2531
27.0931 238.905 23.0604
27.0931 238.905 23.0275
26.6854 235.31 22.6486
27.4284 241.862 23.2459
26.7055 235.487 22.6009
26.7055 235.487 22.5685
27.0931 238.905 22.8633
27.1139 239.088 22.8479
26.8064 236.377 22.5563
26.8267 236.556 22.5408
26.7458 235.843 22.4404
27.0725 238.723 22.6817
27.0106 238.178 22.5971
27.3017 240.745 22.8075
26.8674 236.915 22.4121
27.0518 238.541 22.5332
26.7055 235.487 22.2123
26.7055 235.487 22.18
27.1346 239.271 22.5034
27.0931 238.905 22.4362
27.1139 239.088 22.4205
27.0312 238.359 22.3194
27.0312 238.359 22.2866
27.3649 241.302 22.5285
27.3649 241.302 22.4954
27.3228 240.93 22.4276
27.0518 238.541 22.1724
27.0312 238.359 22.1227
27.197 239.822 22.2255
27.1762 239.638 22.1755
27.3017 240.745 22.2448
26.6453 234.957 21.6777
26.949 237.635 21.8921
27.0106 238.178 21.9094
26.9695 237.815 21.8433
26.8674 236.915 21.728
26.7055 235.487 21.5648
26.7256 235.665 21.5486
26.8064 236.377 21.5813
26.8267 236.556 21.5651
26.9081 237.274 21.5979
26.9081 237.274 21.5653
27.1762 239.638 21.7471
26.8674 236.915 21.4674
26.7055 235.487 21.3057
26.7256 235.665 21.2894
26.949 237.635 21.4347
26.9081 237.274 21.3695
27.0106 238.178 21.4181
27.2598 240.375 21.5826
26.7458 235.843 21.1433
27.197 239.822 21.467
26.9081 237.274 21.2064
26.9081 237.274 21.1737
27.1762 239.638 21.3517
27.197 239.822 21.3351
26.7862 236.199 20.9804
27.197 239.822 21.2692
26.7862 236.199 20.9154
27.2179 240.006 21.2195
27.197 239.822 21.1702
27.1139 239.088 21.0726
27.3228 240.93 21.2019
27.3438 241.116 21.185
26.9081 237.274 20.8149
27.2807 240.559 21.07
26.7055 235.487 20.5934
26.6854 235.31 20.5455
26.7256 235.665 20.5441
27.2598 240.375 20.9216
26.9901 237.996 20.6819
26.6453 234.957 20.3854
26.7055 235.487 20.3991
27.2598 240.375 20.7894
27.2807 240.559 20.7723
26.6453 234.957 20.2562
27.386 241.488 20.7861
27.3438 241.116 20.7209
27.386 241.488 20.7197
27.386 241.488 20.6865
27.0931 238.905 20.4324
27.197 239.822 20.4778
26.7458 235.843 20.1056
26.9901 237.996 20.2565
26.9901 237.996 20.2237
26.6654 235.133 19.9481
26.8267 236.556 20.0363
26.8267 236.556 20.0038
26.9081 237.274 20.0319
26.8877 237.094 19.9841
27.0312 238.359 20.0579
26.8267 236.556 19.8737
26.766 236.021 19.7962
26.8877 237.094 19.8537
26.9695 237.815 19.8814
26.7055 235.487 19.6544
26.6453 234.957 19.5778
26.8877 237.094 19.7233
27.0518 238.541 19.8108
26.7055 235.487 19.5248
27.4072 241.675 20.0046
26.6253 234.78 19.4017
26.9901 237.996 19.6347
26.6654 235.133 19.3662
27.1762 239.638 19.7042
27.2388 240.19 19.7166
26.7055 235.487 19.2982
26.6854 235.31 19.2513
26.8267 236.556 19.3207
27.3228 240.93 19.6448
27.3228 240.93 19.6117
27.3649 241.302 19.6088
27.0518 238.541 19.3516
26.6854 235.31 19.0572
26.7256 235.665 19.0535
27.197 239.822 19.3566
27.2807 240.559 19.3831
27.3228 240.93 19.3798
26.9901 237.996 19.1111
27.0725 238.723 19.1366
26.6453 234.957 18.8024
26.6453 234.957 18.7701
26.847 236.735 18.8796
27.3228 240.93 19.181
27.1554 239.454 19.0306
27.197 239.822 19.0268
27.3649 241.302 19.1111
27.4072 241.675 19.1074
26.847 236.735 18.6843
26.8674 236.915 18.6659
27.0518 238.541 18.7612
27.0518 238.541 18.7285
26.766 236.021 18.4981
26.7458 235.843 18.4517
26.6253 234.78 18.3363
26.6054 234.604 18.2903
26.6253 234.78 18.2718
27.2807 240.559 18.6885
26.8064 236.377 18.3311
27.2179 240.006 18.5794
26.8674 236.915 18.3076
26.8267 236.556 18.2474
26.8267 236.556 18.2148
26.6253 234.78 18.0458
26.7862 236.199 18.1224
27.3438 241.116 18.4665
26.7862 236.199 18.0574
26.8064 236.377 18.0385
26.7458 235.843 17.9653
26.8064 236.377 17.9735
26.6854 235.31 17.86
26.6654 235.133 17.8143
26.7458 235.843 17.8356
27.2598 240.375 18.1453
27.1139 239.088 18.0153
26.6654 235.133 17.685
26.7055 235.487 17.6792
26.6453 234.957 17.6071
26.6654 235.133 17.588
26.9081 237.274 17.7155
27.2598 240.375 17.9139
27.0725 238.723 17.758
27.0931 238.905 17.7387
26.8877 237.094 17.5716
26.8267 236.556 17.4992
26.7862 236.199 17.4403
27.2598 240.375 17.7156
26.7055 235.487 17.323
26.7256 235.665 17.3037
26.949 237.635 17.4157
27.0106 238.178 17.4227
27.2388 240.19 17.5369
27.2598 240.375 17.5173
26.9081 237.274 17.2587
27.3017 240.745 17.4781
27.2807 240.559 17.4315
26.8064 236.377 17.096
26.8267 236.556 17.0764
27.1346 239.271 17.2395
27.1554 239.454 17.2198
27.3649 241.302 17.3194
26.5854 234.428 16.7939
26.8267 236.556 16.9138
26.8064 236.377 16.8685
26.8064 236.377 16.836
26.8267 236.556 16.8162
27.0518 238.541 16.9245
26.6253 234.78 16.6254
26.9286 237.454 16.7821
26.9081 237.274 16.7367
26.7256 235.665 16.5908
26.949 237.635 16.6968
26.949 237.635 16.6641
26.8674 236.915 16.5811
27.0931 238.905 16.6875
26.6854 235.31 16.4041
26.6654 235.133 16.3594
26.6654 235.133 16.3271
27.2388 240.19 16.6452
26.9081 237.274 16.4105
26.8267 236.556 16.3283
26.6453 234.957 16.1856
27.2807 240.559 16.5385
27.3438 241.116 16.5436
27.3228 240.93 16.4977
26.7862 236.199 16.1412
27.3649 241.302 16.4568
27.3649 241.302 16.4236
26.9901 237.996 16.1659
26.9901 237.996 16.1332
27.0725 238.723 16.1496
26.5456 234.077 15.8031
27.3438 241.116 16.2452
27.3438 241.116 16.212
27.3017 240.745 16.154
27.3017 240.745 16.1209
26.7055 235.487 15.7364
26.9081 237.274 15.8232
27.3017 240.745 16.0216
27.0518 238.541 15.8421
27.0518 238.541 15.8093
27.2598 240.375 15.8978
27.2807 240.559 15.8769
27.1554 239.454 15.7711
26.7055 235.487 15.4774
26.7055 235.487 15.445
26.7055 235.487 15.4127
26.6054 234.604 15.3226
27.0312 238.359 15.5351
27.0312 238.359 15.5023
27.0931 238.905 15.505
26.5854 234.428 15.1822
26.9286 237.454 15.3455
26.9695 237.815 15.3361
26.8877 237.094 15.257
26.7256 235.665 15.1326
27.0312 238.359 15.2729
27.0312 238.359 15.2401
27.0106 238.178 15.1957
26.8877 237.094 15.094
26.7458 235.843 14.9819
26.5854 234.428 14.8598
26.5258 233.902 14.7943
26.8064 236.377 14.9184
27.0518 238.541 15.0221
27.0518 238.541 14.9893
27.0312 238.359 14.9451
27.2388 240.19 15.0269
26.7862 236.199 14.7447
26.766 236.021 14.7011
26.9695 237.815 14.7802
26.9695 237.815 14.7475
26.949 237.635 14.7036
27.3017 240.745 14.863
26.949 237.635 14.6383
27.1346 239.271 14.7062
26.6654 235.133 14.4195
26.6854 235.31 14.398
27.0518 238.541 14.5629
26.8267 236.556 14.4092
26.9286 237.454 14.4313
26.6654 235.133 14.2579
26.6054 234.604 14.1935
26.6054 234.604 14.1613
26.6253 234.78 14.1396
26.5854 234.428 14.0862
26.6854 235.31 14.1068
27.3017 240.745 14.3995
27.0518 238.541 14.2349
27.0518 238.541 14.2021
26.7256 235.665 13.9985
26.6054 234.604 13.9032
26.766 236.021 13.9547
26.7862 236.199 13.9328
26.7256 235.665 13.8689
26.5059 233.727 13.7227
27.2598 240.375 14.0799
27.3017 240.745 14.0685
26.6854 235.31 13.7186
26.6854 235.31 13.6862
26.949 237.635 13.7888
27.197 239.822 13.8827
26.6453 234.957 13.5687
26.6654 235.133 13.5466
26.7256 235.665 13.5448
27.0725 238.723 13.6878
27.2388 240.19 13.7389
26.766 236.021 13.4679
26.8674 236.915 13.4864
26.8674 236.915 13.4538
26.8877 237.094 13.4314
27.197 239.822 13.5529
27.0312 238.359 13.4375
26.8064 236.377 13.2933
26.8064 236.377 13.2608
26.8064 236.377 13.2283
26.7256 235.665 13.156
26.7458 235.843 13.1335
26.7458 235.843 13.1011
27.3017 240.745 13.3403
27.1554 239.454 13.2358
27.1762 239.638 13.213
26.9286 237.454 13.06
26.9695 237.815 13.0471
26.949 237.635 13.0046
27.1554 239.454 13.0712
26.766 236.021 12.8513
26.7256 235.665 12.7995
27.0518 238.541 12.923
27.0518 238.541 12.8902
27.0518 238.541 12.8574
27.0312 238.359 12.8148
26.9695 237.815 12.7529
26.9695 237.815 12.7202
26.9901 237.996 12.6971
27.0106 238.178 12.674
26.6453 234.957 12.4703
26.5258 233.902 12.3822
26.9081 237.274 12.5281
26.8674 236.915 12.4765
27.1762 239.638 12.587
27.197 239.822 12.5637
27.1346 239.271 12.5019
26.6453 234.957 12.2442
26.9695 237.815 12.3605
27.0725 238.723 12.3748
27.2388 240.19 12.4178
27.2388 240.19 12.3848
27.197 239.822 12.3328
26.8877 237.094 12.16
26.7862 236.199 12.0816
27.0106 238.178 12.15
27.0725 238.723 12.145
27.0106 238.178 12.0845
26.9901 237.996 12.0426
26.7458 235.843 11.9012
26.766 236.021 11.8777
26.5258 233.902 11.739
27.2179 240.006 12.0123
26.847 236.735 11.816
26.9286 237.454 11.8193
27.0106 238.178 11.8225
26.847 236.735 11.7184
26.8267 236.556 11.677
26.8267 236.556 11.6445
26.949 237.635 11.6649
27.2388 240.19 11.7573
27.2388 240.19 11.7243
27.2388 240.19 11.6912
26.6453 234.957 11.4042
27.1554 239.454 11.5896
27.1554 239.454 11.5567
27.1139 239.088 11.5061
27.0931 238.905 11.4645
27.1554 239.454 11.4579
27.3228 240.93 11.4954
26.9286 237.454 11.2969
26.9081 237.274 11.2557
26.9081 237.274 11.2231
26.7862 236.199 11.1397
26.9695 237.815 11.1833
27.0106 238.178 11.1676
27.1762 239.638 11.2031
27.1762 239.638 11.1701
27.0518 238.541 11.0862
27.0312 238.359 11.045
26.6453 234.957 10.855
26.8267 236.556 10.8964
26.8267 236.556 10.8638
26.6654 235.133 10.7662
26.6453 234.957 10.7258
26.6253 234.78 10.6854
26.5655 234.253 10.6292
26.766 236.021 10.677
27.0931 238.905 10.7746
27.0931 238.905 10.7418
26.9286 237.454 10.6439
27.2388 240.19 10.7335
26.9081 237.274 10.5706
26.9081 237.274 10.5379
27.1762 239.638 10.61
27.1139 239.088 10.5528
27.1554 239.454 10.536
26.766 236.021 10.3525
26.8877 237.094 10.3669
26.9081 237.274 10.3422
26.7862 236.199 10.2628
26.847 236.735 10.2536
26.8674 236.915 10.2288
26.6654 235.133 10.1195
26.7256 235.665 10.11
27.0106 238.178 10.1851
27.0106 238.178 10.1523
26.949 237.635 10.0965
26.9286 237.454 10.0562
26.9286 237.454 10.0235
26.9901 237.996 10.0137
26.9695 237.815 9.97338
26.949 237.635 9.93313
27.2388 240.19 10.0069
26.8064 236.377 9.81557
26.8267 236.556 9.79047
26.6854 235.31 9.70655
26.9901 237.996 9.78463
27.0106 238.178 9.75933
26.7458 235.843 9.63122
26.7055 235.487 9.58434
26.8877 237.094 9.61713
26.9695 237.815 9.61369
26.766 236.021 9.50868
26.847 236.735 9.50492
27.0106 238.178 9.53008
26.949 237.635 9.47568
27.0725 238.723 9.48626
27.0725 238.723 9.45343
27.2388 240.19 9.47849
26.6453 234.957 9.23967
26.5655 234.253 9.17978
26.5854 234.428 9.15442
27.2179 240.006 9.33922
26.9081 237.274 9.2003
26.9695 237.815 9.18859
26.949 237.635 9.14894
26.9081 237.274 9.10243
26.9081 237.274 9.0698
27.1554 239.454 9.12021
27.1346 239.271 9.08034
27.1139 239.088 9.04052
26.6253 234.78 8.84535
26.847 236.735 8.88645
26.847 236.735 8.8539
26.847 236.735 8.82135
27.0106 238.178 8.84235
26.9901 237.996 8.80289
27.0518 238.541 8.79024
26.8064 236.377 8.67801
27.0312 238.359 8.71799
27.0312 238.359 8.68521
26.949 237.635 8.62614
27.1346 239.271 8.65264
27.1139 239.088 8.61315
27.3017 240.745 8.63972
26.6854 235.31 8.41234
26.6453 234.957 8.36739
26.7055 235.487 8.35392
26.8267 236.556 8.3593
26.847 236.735 8.33308
26.6854 235.31 8.25056
26.6253 234.78 8.1997
27.1554 239.454 8.33002
26.949 237.635 8.23404
26.949 237.635 8.20137
26.8064 236.377 8.12547
26.8064 236.377 8.09297
26.8064 236.377 8.06047
27.1554 239.454 8.13247
27.0518 238.541 8.06865
27.0312 238.359 8.02973
27.2388 240.19 8.05837
26.7055 235.487 7.86822
26.8064 236.377 7.86546
26.7256 235.665 7.80934
26.766 236.021 7.78868
26.7055 235.487 7.7387
26.6253 234.78 7.68318
26.847 236.735 7.71461
26.9081 237.274 7.69954
26.8267 236.556 7.64372
26.6654 235.133 7.56541
26.6453 234.957 7.52742
26.6253 234.78 7.48949
27.2598 240.375 7.6349
26.5655 234.253 7.40824
27.1554 239.454 7.53982
27.2179 240.006 7.52418
26.9286 237.454 7.41154
26.7055 235.487 7.31777
26.7862 236.199 7.3074
26.766 236.021 7.26943
26.8674 236.915 7.26439
26.8674 236.915 7.23182
26.8877 237.094 7.2047
26.847 236.735 7.16124
26.4072 232.857 7.01191
27.0725 238.723 7.15573
26.9695 237.815 7.09582
26.9695 237.815 7.06312
26.4861 233.553 6.90441
26.5258 233.902 6.88257
26.5655 234.253 6.86067
27.1554 239.454 6.98009
27.1554 239.454 6.94717
27.1554 239.454 6.91424
26.6253 234.78 6.747
26.5854 234.428 6.70465
26.4466 233.205 6.63758
26.4861 233.553 6.61538
26.4664 233.379 6.57836
26.5258 233.902 6.56096
26.766 236.021 6.58792
27.0518 238.541 6.62548
27.0106 238.178 6.58264
27.1554 239.454 6.58499
27.1762 239.638 6.55709
27.197 239.822 6.52914
26.766 236.021 6.39321
26.766 236.021 6.36075
27.3438 241.116 6.46492
27.1139 239.088 6.37768
27.1554 239.454 6.35452
26.7458 235.843 6.22624
26.6854 235.31 6.17983
26.5059 233.727 6.10613
26.5456 234.077 6.08308
27.197 239.822 6.19939
26.9695 237.815 6.11483
26.9695 237.815 6.08213
26.8877 237.094 6.03108
26.8877 237.094 5.99848
26.847 236.735 5.95685
26.9901 237.996 5.95586
26.9081 237.274 5.90516
26.8064 236.377 5.85034
26.8064 236.377 5.81784
26.8674 236.915 5.79848
27.1762 239.638 5.83218
27.2388 240.19 5.8126
27.3017 240.745 5.79292
27.2598 240.375 5.75096
27.2598 240.375 5.71791
26.8674 236.915 5.60303
26.4861 233.553 5.49141
26.9901 237.996 5.56317
26.9901 237.996 5.53044
26.6054 234.604 5.41935
27.0931 238.905 5.48587
27.0106 238.178 5.43641
26.9901 237.996 5.39954
27.0725 238.723 5.38321
26.847 236.735 5.30583
26.847 236.735 5.27328
26.5854 234.428 5.18966
26.7862 236.199 5.19637
26.8267 236.556 5.17171
26.847 236.735 5.14307
26.8674 236.915 5.11439
26.847 236.735 5.07797
26.847 236.735 5.04542
26.7862 236.199 5.00151
26.7458 235.843 4.96154
26.7458 235.843 4.92911
27.0518 238.541 4.95271
26.5059 233.727 4.82063
26.5456 234.077 4.79566
26.8267 236.556 4.81392
26.8877 237.094 4.79227
26.8674 236.915 4.75606
26.8674 236.915 4.72348
26.9081 237.274 4.69803
27.2388 240.19 4.72273
27.3228 240.93 4.70416
27.3228 240.93 4.67103
26.5258 233.902 4.50262
27.0106 238.178 4.55217
27.0725 238.723 4.52977
26.5854 234.428 4.41604
27.0106 238.178 4.45392
26.5655 234.253 4.34831
26.7862 236.199 4.35196
26.8064 236.377 4.32275
26.9081 237.274 4.30653
26.8877 237.094 4.27066
26.847 236.735 4.23164
27.1139 239.088 4.24083
27.1139 239.088 4.20795
27.0312 238.359 4.16235
27.1139 239.088 4.1422
26.7055 235.487 4.04744
26.6453 234.957 4.00601
26.6253 234.78 3.97072
26.5854 234.428 3.93253
26.5456 234.077 3.89446
26.5258 233.902 3.85939
26.5059 233.727 3.82436
26.7055 235.487 3.82078
26.6854 235.31 3.78555
26.7458 235.843 3.76169
26.7458 235.843 3.72926
26.6453 234.957 3.68295
26.6253 234.78 3.6479
26.766 236.021 3.63472
26.8064 236.377 3.60771
26.9286 237.454 3.5915
27.0931 238.905 3.5806
26.6654 235.133 3.49173
26.9695 237.815 3.49886
26.9901 237.996 3.4688
26.8267 236.556 3.41528
26.7862 236.199 3.37764
26.847 236.735 3.35276
26.8674 236.915 3.32273
26.6854 235.31 3.26787
26.6854 235.31 3.23552
26.6054 234.604 3.19355
26.4861 233.553 3.14712
26.5059 233.727 3.11734
26.7256 235.665 3.11078
26.7055 235.487 3.07605
26.7458 235.843 3.04827
26.6253 234.78 3.00225
27.2179 240.006 3.03607
27.2179 240.006 3.00307
26.6654 235.133 2.90977
26.6854 235.31 2.87961
26.8674 236.915 2.86667
26.8674 236.915 2.83409
26.9081 237.274 2.80577
26.7458 235.843 2.75641
26.6253 234.78 2.71171
26.6253 234.78 2.67943
26.8267 236.556 2.66717
26.6453 234.957 2.61683
27.0312 238.359 2.62195
27.1554 239.454 2.60107
26.8674 236.915 2.54091
26.8877 237.094 2.51024
27.0518 238.541 2.49275
27.0725 238.723 2.46183
26.5854 234.428 2.38531
26.6253 234.78 2.35661
26.6253 234.78 2.32432
27.2598 240.375 2.34666
26.5456 234.077 2.25299
26.6453 234.957 2.22915
26.5258 233.902 2.18699
26.9901 237.996 2.19254
27.0725 238.723 2.16641
27.0931 238.905 2.13522
26.5655 234.253 2.06142
26.7862 236.199 2.04607
26.6654 235.133 2.00451
26.7055 235.487 1.97515
26.9901 237.996 1.96347
26.9901 237.996 1.93075
26.6854 235.31 1.8766
26.7055 235.487 1.84563
26.949 237.635 1.82979
27.0312 238.359 1.80259
27.1762 239.638 1.77931
26.847 236.735 1.72521
26.7458 235.843 1.68627
26.5059 233.727 1.63901
26.6854 235.31 1.61776
26.7256 235.665 1.58779
26.7256 235.665 1.55539
26.766 236.021 1.52528
27.1554 239.454 1.51455
27.1762 239.638 1.48276
26.8877 237.094 1.43442
26.949 237.635 1.40502
26.847 236.735 1.36715
26.8267 236.556 1.33359
26.9286 237.454 1.306
26.9081 237.274 1.27238
26.8674 236.915 1.23788
26.7862 236.199 1.20166
26.9081 237.274 1.17451
26.9286 237.454 1.14275
26.949 237.635 1.11094
26.5456 234.077 1.06213
27.0518 238.541 1.04958
26.4466 233.205 0.994034
26.949 237.635 0.980243
26.8064 236.377 0.942555
26.7862 236.199 0.909366
26.8267 236.556 0.878215
26.847 236.735 0.846329
26.368 232.511 0.799257
26.4072 232.857 0.768429
26.8877 237.094 0.74981
26.8674 236.915 0.716667
26.4664 233.379 0.673881
27.1346 239.271 0.657995
26.5059 233.727 0.610613
26.7862 236.199 0.584592
26.7055 235.487 0.550452
27.0312 238.359 0.52439
26.7862 236.199 0.48716
26.7862 236.199 0.454683
26.4861 233.553 0.417476
27.1554 239.454 0.3951
27.1554 239.454 0.362175
26.9901 237.996 0.327245
26.766 236.021 0.292075
26.8064 236.377 0.260015
26.7055 235.487 0.226657
26.7055 235.487 0.194277
26.766 236.021 0.162264
27.1762 239.638 0.131801
26.6054 234.604 0.0967742
26.6054 234.604 0.0645161
26.7055 235.487 0.0323795
26.949 237.635 -0
26.9695 237.815 -0.0326996
27.1554 239.454 -0.0658499
27.0312 238.359 -0.0983232
27.2807 240.559 -0.132308
26.6054 234.604 -0.16129
26.949 237.635 -0.196049
27.0106 238.178 -0.229246
26.8674 236.915 -0.260606
26.8267 236.556 -0.292738
26.8267 236.556 -0.325265
27.3017 240.745 -0.364126
26.6654 235.133 -0.38797
26.6654 235.133 -0.420301
27.1139 239.088 -0.460245
26.847 236.735 -0.488266
26.847 236.735 -0.520818
26.7862 236.199 -0.552115
26.766 236.021 -0.584151
26.7458 235.843 -0.616139
26.8267 236.556 -0.65053
27.0931 238.905 -0.68984
26.6253 234.78 -0.71021
26.5059 233.727 -0.739163
26.4861 233.553 -0.770724
26.4861 233.553 -0.802838
27.0725 238.723 -0.853435
27.0725 238.723 -0.88626
27.0725 238.723 -0.919084
27.0312 238.359 -0.950457
26.8267 236.556 -0.975794
26.847 236.735 -1.00908
26.847 236.735 -1.04164
26.8674 236.915 -1.075
26.9286 237.454 -1.1101
26.6054 234.604 -1.12903
27.1346 239.271 -1.18439
27.1554 239.454 -1.21822
27.2179 240.006 -1.25403
27.0106 238.178 -1.27723
26.949 237.635 -1.30699
26.9286 237.454 -1.33865
26.8674 236.915 -1.36818
26.5059 233.727 -1.38191
26.9901 237.996 -1.43988
27.1762 239.638 -1.48276
26.9081 237.274 -1.50076
26.8877 237.094 -1.53222
26.8877 237.094 -1.56482
26.9081 237.274 -1.59863
26.9081 237.274 -1.63126
26.5456 234.077 -1.64147
27.1139 239.088 -1.70948
27.1139 239.088 -1.74235
26.6654 235.133 -1.74586
26.4466 233.205 -1.76361
26.4269 233.031 -1.79434
26.4861 233.553 -1.83047
26.6854 235.31 -1.8766
26.7256 235.665 -1.91183
26.4269 233.031 -1.9225
26.4466 233.205 -1.956
26.6854 235.31 -2.00602
26.6854 235.31 -2.03837
26.5258 233.902 -2.05834
26.6854 235.31 -2.10309
26.6854 235.31 -2.13544
26.766 236.021 -2.17434
26.9081 237.274 -2.21851
26.8877 237.094 -2.24943
26.7458 235.843 -2.26998
27.0931 238.905 -2.33231
27.1346 239.271 -2.36878
27.1554 239.454 -2.40352
26.847 236.735 -2.40878
26.847 236.735 -2.44133
26.847 236.735 -2.47388
26.9286 237.454 -2.51405
27.1762 239.638 -2.57011
27.1139 239.088 -2.59709
27.1554 239.454 -2.634
26.5854 234.428 -2.61094
26.6054 234.604 -2.64516
26.5456 234.077 -2.67141
27.1346 239.271 -2.76358
27.1346 239.271 -2.79648
27.0312 238.359 -2.8186
27.0518 238.541 -2.85355
27.0725 238.723 -2.88855
26.6253 234.78 -2.87312
26.5059 233.727 -2.89238
26.5059 233.727 -2.92451
26.8064 236.377 -2.99017
26.7458 235.843 -3.01584
26.5258 233.902 -3.02319
26.3288 232.166 -3.03267
26.9695 237.815 -3.13916
26.949 237.635 -3.16945
27.197 239.822 -3.2316
27.1554 239.454 -3.25957
27.0725 238.723 -3.28244
26.4664 233.379 -3.24104
26.4664 233.379 -3.27313
26.5456 234.077 -3.31512
27.0518 238.541 -3.41114
27.0518 238.541 -3.44394
27.0725 238.723 -3.47939
26.6054 234.604 -3.45161
26.5655 234.253 -3.47865
26.8064 236.377 -3.54271
26.8064 236.377 -3.57521
26.7055 235.487 -3.59413
26.6854 235.31 -3.62378
26.7055 235.487 -3.65889
26.4072 232.857 -3.65004
26.5655 234.253 -3.70412
26.4072 232.857 -3.71407
26.8877 237.094 -3.81425
26.949 237.635 -3.85562
26.949 237.635 -3.8883
26.949 237.635 -3.92097
26.847 236.735 -3.93868
26.9286 237.454 -3.9833
26.9081 237.274 -4.0129
26.766 236.021 -4.02415
26.3876 232.684 -3.99926
26.6253 234.78 -4.06757
26.6054 234.604 -4.09677
26.6054 234.604 -4.12903
26.9081 237.274 -4.20865
26.7862 236.199 -4.22205
26.7862 236.199 -4.25453
26.5059 233.727 -4.24215
26.5059 233.727 -4.27429
26.7862 236.199 -4.35196
26.7862 236.199 -4.38444
26.6654 235.133 -4.39699
26.6654 235.133 -4.42932
26.847 236.735 -4.49205
26.5854 234.428 -4.48051
26.5258 233.902 -4.50262
26.6253 234.78 -4.5518
26.6253 234.78 -4.58408
26.6054 234.604 -4.6129
26.8267 236.556 -4.68381
26.5258 233.902 -4.66343
26.5258 233.902 -4.69559
27.1346 239.271 -4.83627
26.7256 235.665 -4.79578
26.7256 235.665 -4.82818
26.7458 235.843 -4.86425
26.7862 236.199 -4.90408
26.5456 234.077 -4.89222
26.5456 234.077 -4.9244
26.5258 233.902 -4.95288
26.766 236.021 -5.03019
26.7055 235.487 -5.05121
26.5456 234.077 -5.05314
26.5258 233.902 -5.08153
26.4861 233.553 -5.10605
26.4861 233.553 -5.13816
26.6654 235.133 -5.20526
26.6054 234.604 -5.22581
26.6654 235.133 -5.26993
26.6054 234.604 -5.29032
26.5655 234.253 -5.31461
26.5456 234.077 -5.34281
26.766 236.021 -5.41962
26.368 232.511 -5.371
26.368 232.511 -5.40297
26.5059 233.727 -5.46338
26.5854 234.428 -5.51199
26.5258 233.902 -5.53179
27.1139 239.088 -5.68731
26.9081 237.274 -5.67678
26.4664 233.379 -5.61567
26.4466 233.205 -5.64355
26.4466 233.205 -5.67562
26.4861 233.553 -5.71621
27.0931 238.905 -5.88006
26.9695 237.815 -5.88593
26.4466 233.205 -5.80388
26.4466 233.205 -5.83594
26.8064 236.377 -5.94785
27.0312 238.359 -6.03049
26.4664 233.379 -5.93657
26.4466 233.205 -5.96421
26.4664 233.379 -6.00075
27.0106 238.178 -6.15689
27.1139 239.088 -6.2133
26.949 237.635 -6.20821
26.9286 237.454 -6.23614
26.9081 237.274 -6.26404
26.7458 235.843 -6.25867
26.5258 233.902 -6.23934
26.5456 234.077 -6.2762
26.4466 233.205 -6.28486
26.3484 232.338 -6.29346
26.9286 237.454 -6.46469
27.0312 238.359 -6.5221
26.5655 234.253 -6.44195
26.6453 234.957 -6.49361
27.0312 238.359 -6.62043
26.949 237.635 -6.63298
26.9286 237.454 -6.66059
26.5456 234.077 -6.59805
26.4466 233.205 -6.60552
26.4466 233.205 -6.63758
26.4466 233.205 -6.66965
26.9695 237.815 -6.83422
26.5655 234.253 -6.76405
26.3484 232.338 -6.74071
26.8064 236.377 -6.8904
26.7862 236.199 -6.91767
26.9286 237.454 -6.98709
27.0931 238.905 -7.06264
26.4269 233.031 -6.92101
26.368 232.511 -6.93755
26.6654 235.133 -7.04812
26.5456 234.077 -7.04865
26.7055 235.487 -7.12349
26.6253 234.78 -7.13438
26.6253 234.78 -7.16667
26.6854 235.31 -7.2152
27.1762 239.638 -7.38084
26.5854 234.428 -7.25262
27.0312 238.359 -7.40701
26.4664 233.379 -7.28433
26.9286 237.454 -7.44419
26.949 237.635 -7.48252
26.3484 232.338 -7.3477
26.7055 235.487 -7.47967
26.7256 235.665 -7.51771
26.7458 235.843 -7.55581
26.766 236.021 -7.59396
26.847 236.735 -7.64951
26.9081 237.274 -7.69954
27.0725 238.723 -7.77939
27.1139 239.088 -7.82416
26.8064 236.377 -7.76795
26.7256 235.665 -7.77694
26.7256 235.665 -7.80934
26.4072 232.857 -7.74832
26.5854 234.428 -7.83283
26.4861 233.553 -7.8357
26.6654 235.133 -7.92105
26.6654 235.133 -7.95338
26.7055 235.487 -7.99774
26.7055 235.487 -8.03012
26.949 237.635 -8.13602
27.1139 239.088 -8.21865
26.5456 234.077 -8.07859
26.4072 232.857 -8.0685
26.4072 232.857 -8.10052
26.368 232.511 -8.12045
26.3876 232.684 -8.15848
26.8674 236.915 -8.33939
26.5456 234.077 -8.27171
27.0106 238.178 -8.44935
27.1139 239.088 -8.51453
26.4664 233.379 -8.34328
26.7256 235.665 -8.45742
26.4664 233.379 -8.40746
26.4269 233.031 -8.42697
26.9695 237.815 -8.6327
26.5456 234.077 -8.52919
26.5456 234.077 -8.56138
27.0931 238.905 -8.77082
26.9081 237.274 -8.74355
27.0931 238.905 -8.83652
27.0518 238.541 -8.85583
27.0725 238.723 -8.89542
26.6654 235.133 -8.79399
27.2388 240.19 -9.01613
26.6253 234.78 -8.84535
26.4664 233.379 -8.82463
26.4466 233.205 -8.85011
27.0725 238.723 -9.09237
26.5456 234.077 -8.9476
26.2509 231.478 -8.88009
26.8064 236.377 -9.10053
26.7862 236.199 -9.12613
26.766 236.021 -9.1517
26.6854 235.31 -9.15651
26.766 236.021 -9.2166
26.3484 232.338 -9.10475
26.4861 233.553 -9.18447
26.4861 233.553 -9.21658
26.4861 233.553 -9.24869
26.9901 237.996 -9.45738
26.8267 236.556 -9.43268
26.6253 234.78 -9.39415
26.5258 233.902 -9.39117
26.6253 234.78 -9.45871
26.7256 235.665 -9.52675
26.847 236.735 -9.60257
26.847 236.735 -9.63513
26.9901 237.996 -9.71918
26.949 237.635 -9.73708
26.847 236.735 -9.73278
26.7458 235.843 -9.72851
26.766 236.021 -9.7683
26.7256 235.665 -9.78598
26.6253 234.78 -9.78153
26.4269 233.031 -9.74069
26.7458 235.843 -9.89065
26.5854 234.428 -9.86357
26.5456 234.077 -9.88099
26.7862 236.199 -10.003
26.6253 234.78 -9.97523
26.7862 236.199 -10.068
27.0518 238.541 -10.2006
27.0931 238.905 -10.249
27.3017 240.745 -10.361
26.6654 235.133 -10.1519
26.7458 235.843 -10.2149
26.7458 235.843 -10.2474
26.9081 237.274 -10.3422
26.8674 236.915 -10.3591
26.5059 233.727 -10.2519
26.5258 233.902 -10.2917
26.7055 235.487 -10.3938
26.6654 235.133 -10.4105
26.7055 235.487 -10.4586
26.2315 231.307 -10.3047
27.1554 239.454 -10.7006
26.847 236.735 -10.6117
26.847 236.735 -10.6442
26.7055 235.487 -10.6205
26.7458 235.843 -10.6689
26.9286 237.454 -10.7745
26.6453 234.957 -10.6935
26.5258 233.902 -10.6776
26.5059 233.727 -10.7018
26.8267 236.556 -10.8638
26.8267 236.556 -10.8964
26.8267 236.556 -10.9289
26.8267 236.556 -10.9614
26.8064 236.377 -10.9856
27.0106 238.178 -11.1021
26.5456 234.077 -10.9431
26.8877 237.094 -11.1168
26.4664 233.379 -10.9746
26.4466 233.205 -10.9985
26.368 232.511 -10.9978
26.4072 232.857 -11.0462
27.1139 239.088 -11.3746
27.0106 238.178 -11.3641
26.4269 233.031 -11.1505
26.5059 233.727 -11.216
26.5059 233.727 -11.2481
26.5059 233.727 -11.2803
26.6854 235.31 -11.389
26.9901 237.996 -11.5518
27.0106 238.178 -11.5933
26.4861 233.553 -11.4003
26.5059 233.727 -11.441
26.3093 231.994 -11.388
26.7055 235.487 -11.5919
26.9695 237.815 -11.7392
26.9695 237.815 -11.7719
26.368 232.511 -11.5413
26.8877 237.094 -11.8014
26.7458 235.843 -11.7715
26.8064 236.377 -11.8307
26.5854 234.428 -11.7654
27.0312 238.359 -11.9954
27.0312 238.359 -12.0282
26.8064 236.377 -11.9607
26.8064 236.377 -11.9932
26.8064 236.377 -12.0257
26.4269 233.031 -11.8875
26.8267 236.556 -12.0998
26.5854 234.428 -12.0232
26.9695 237.815 -12.2297
26.8877 237.094 -12.2252
26.8877 237.094 -12.2578
26.9081 237.274 -12.2997
26.6654 235.133 -12.2211
26.6654 235.133 -12.2534
26.5059 233.727 -12.2123
26.5456 234.077 -12.2627
26.5456 234.077 -12.2949
26.6453 234.957 -12.3734
26.6854 235.31 -12.4244
26.5854 234.428 -12.41
26.5655 234.253 -12.433
26.4072 232.857 -12.3909
26.949 237.635 -12.6778
26.3288 232.166 -12.418
26.766 236.021 -12.6566
26.7458 235.843 -12.6795
26.6654 235.133 -12.6737
26.6654 235.133 -12.706
26.9286 237.454 -12.8641
26.949 237.635 -12.9065
